#!ascii version in FreeSurfer format (SUMA)
1002 2000
-41.710411  44.419922  14.655367  0
-28.767611  44.256065  13.184273  0
-34.358349  45.417263  5.933003  0
-44.475727  48.214619  3.853561  0
-25.063946  37.500023  32.568401  0
-31.870308  44.512451  24.513180  0
-33.174252  47.913666  17.830839  0
-35.413071  52.964138  7.704971  0
-29.107796  54.010521  1.559541  0
-40.031464  51.409031  -1.603191  0
-23.303902  37.448460  18.758739  0
-23.184423  48.163559  16.503792  0
-28.891396  57.913887  19.298988  0
-29.668861  63.991928  9.680647  0
-32.639668  60.867012  1.539234  0
-17.455879  50.610893  15.898037  0
-24.808083  58.796932  15.113940  0
-25.443480  61.126469  8.035873  0
-26.698030  71.985809  0.855055  0
-19.138149  61.635342  16.895395  0
-18.905357  61.679661  9.418003  0
-19.123472  64.596703  0.900313  0
-17.574963  69.123550  15.859079  0
-17.368582  72.105652  6.333709  0
-11.624300  70.166611  5.599069  0
-28.135317  14.876440  42.973469  0
-23.305485  14.110949  37.356846  0
-17.741785  13.153467  33.562836  0
-17.372185  13.050333  41.192139  0
-20.473347  13.726948  48.765594  0
-13.811830  8.931343  43.772232  0
-5.699003  6.600076  47.662544  0
-2.292459  2.497787  43.632179  0
-2.399453  -1.422378  37.062481  0
-9.289230  64.689697  10.893048  0
-5.563687  56.835983  12.281395  0
-7.204478  51.611446  18.248163  0
-5.505071  43.466415  23.230335  0
-2.631855  34.161911  25.390903  0
-2.445950  23.297920  27.149906  0
-9.127974  17.145710  34.124733  0
-10.724608  8.715915  37.867569  0
-6.802313  0.954034  34.869396  0
-29.710230  18.666826  35.741192  0
-26.794363  21.883093  25.830582  0
-17.084648  32.061733  24.717720  0
-17.554886  44.453114  27.497181  0
-20.639200  50.524357  28.682772  0
-15.143511  58.931568  25.829521  0
-7.165054  67.593102  25.193569  0
-7.067636  66.757645  16.397305  0
-22.931850  15.691502  30.446423  0
-20.210083  24.281019  27.070217  0
-14.264904  35.434330  33.520077  0
-14.867825  47.929398  36.134495  0
-11.978125  53.675549  32.495510  0
-7.322537  60.768883  28.084229  0
-5.785391  59.698891  20.884007  0
-19.585577  22.295786  34.223770  0
-23.610529  29.795773  36.168980  0
-16.624542  37.671471  41.702408  0
-5.796267  43.428230  35.825428  0
-4.615334  52.309559  34.396351  0
-3.224657  51.519516  27.001148  0
-22.181913  23.363571  44.146614  0
-15.083502  25.509140  36.409134  0
-8.154215  32.939392  42.661133  0
-4.091914  40.844051  39.682117  0
-7.463482  41.629597  29.312550  0
-12.846127  21.787085  43.941208  0
-4.668908  26.555603  44.528412  0
-3.155229  29.659756  36.411930  0
-9.247396  31.909740  31.745983  0
-6.945146  17.582546  48.835815  0
-2.643280  20.163998  45.288956  0
-3.607892  19.634457  35.081936  0
-4.100601  12.102122  46.991337  0
-8.837830  15.930675  41.949337  0
-6.602486  5.380171  41.806694  0
-32.749279  9.856753  39.567600  0
-33.397144  7.389170  30.291277  0
-32.693947  0.301094  29.012262  0
-30.814562  0.368233  41.040276  0
-34.115166  -8.569089  46.682148  0
-29.156372  -13.244385  39.434650  0
-24.960152  -18.065613  31.623894  0
-26.843147  -29.164040  44.323891  0
-24.256260  -35.191341  47.743923  0
-7.043715  -10.489156  36.291424  0
-1.542128  -14.493354  36.289349  0
-6.288993  -19.732121  39.319809  0
-5.624897  -23.146952  43.778728  0
-2.458086  -27.425655  47.691315  0
-5.608298  -32.171192  45.084106  0
-11.981895  -30.128670  48.088585  0
-17.238247  -28.081736  50.280590  0
-20.236027  -31.509743  45.155380  0
-26.926331  5.109921  33.906555  0
-22.861736  8.428509  30.686060  0
-20.841805  5.448399  35.786919  0
-22.632334  2.349253  42.429092  0
-16.233974  4.142841  51.234428  0
-8.656375  0.164230  44.271324  0
-2.310999  -3.058811  45.575169  0
-2.608141  -7.461849  40.605015  0
-26.718679  3.625605  26.811691  0
-20.239662  -1.570978  29.462578  0
-19.793049  -2.206004  36.050507  0
-13.364029  -0.215048  43.541157  0
-8.962653  -5.829085  48.887329  0
-2.054498  -8.357603  49.215881  0
-2.822038  -13.775496  43.420212  0
-26.502935  -3.296074  32.664833  0
-21.316132  -8.341203  37.099319  0
-14.674908  -10.228072  38.740509  0
-9.688560  -12.346977  44.874996  0
-6.268533  -13.911360  52.525337  0
-3.859653  -19.278370  47.210934  0
-27.117025  -5.385106  45.133949  0
-21.502335  -10.573360  46.302933  0
-17.979601  -17.752672  46.189625  0
-13.405258  -16.412960  52.063843  0
-8.993657  -21.057419  49.775265  0
-27.215298  -12.353992  48.496407  0
-21.253902  -21.759789  42.395378  0
-14.576164  -20.685492  46.952171  0
-8.987068  -25.982580  48.569145  0
-22.270348  -18.936424  35.812012  0
-14.913583  -20.928411  37.133717  0
-9.588863  -26.971462  40.639137  0
-21.483768  -26.641174  36.703934  0
-15.616199  -27.052889  41.696182  0
-22.342567  -29.000889  48.379616  0
-33.634224  12.777135  30.086433  0
-40.983574  10.747143  32.074112  0
-44.695175  3.689895  29.820784  0
-51.713406  0.741759  27.798080  0
-47.641628  1.703082  22.357679  0
-44.869862  -0.219250  14.742123  0
-51.304024  -0.874668  18.932425  0
-55.841309  -3.258674  19.173529  0
-49.440979  -10.890056  16.252144  0
-24.398466  -35.536697  42.550777  0
-32.698174  -32.075260  40.416985  0
-39.894024  -29.524395  37.615868  0
-41.634705  -28.511032  31.938980  0
-41.202202  -20.205303  34.041740  0
-44.053902  -15.270256  29.188377  0
-44.176250  -20.719217  28.315542  0
-47.528183  -22.965595  24.440111  0
-53.369095  -18.133125  23.159510  0
-39.363426  10.864540  37.064926  0
-41.223160  0.166750  28.912539  0
-38.721832  1.623477  37.314152  0
-35.620590  -3.657031  42.129276  0
-34.313652  -15.721754  37.924839  0
-31.599049  -21.042885  32.160656  0
-29.759048  -21.266186  41.275009  0
-30.281534  -32.509682  45.681358  0
-45.050430  4.217294  34.332317  0
-45.107147  -4.872169  34.182995  0
-35.666080  -3.877262  34.882656  0
-30.717533  -9.466035  34.657349  0
-37.225155  -18.350521  32.945946  0
-36.461220  -22.085012  42.616524  0
-35.208534  -27.279476  43.884766  0
-50.950569  -4.151669  32.091595  0
-39.791618  -8.039866  27.956074  0
-30.471296  -8.331524  26.615990  0
-33.468342  -12.842184  29.741505  0
-41.716198  -14.763467  39.411804  0
-40.964035  -22.230099  42.126007  0
-44.892422  -3.241597  25.723343  0
-34.727409  -6.119467  21.419157  0
-37.085487  -14.111922  25.599077  0
-41.827595  -10.591268  35.900070  0
-45.840427  -16.583380  40.965195  0
-40.002522  -1.596291  17.886442  0
-41.606285  -9.604132  21.645325  0
-49.461128  -12.161787  31.810112  0
-49.026905  -13.817050  36.634754  0
-46.503429  -4.738510  19.655895  0
-53.510445  -10.740872  26.427929  0
-51.396156  -18.051676  29.728746  0
-54.859276  -7.548765  22.188196  0
-48.035835  -13.406876  24.738199  0
-46.373722  -9.885430  19.319906  0
-47.709797  -19.121117  14.511843  0
-55.270439  -13.833871  12.434066  0
-54.493900  -5.870351  10.868402  0
-50.790062  -3.349270  7.903250  0
-47.846363  1.722184  4.012411  0
-47.226067  8.167303  1.071519  0
-43.186348  13.445738  0.024761  0
-40.360039  20.986689  1.074337  0
-34.454285  24.455070  2.000765  0
-39.767765  13.348609  24.275389  0
-36.599442  7.655488  27.301334  0
-42.192322  2.486337  24.679911  0
-49.130180  6.975527  26.049911  0
-49.981209  3.910689  17.581303  0
-50.563232  -0.324894  12.292014  0
-56.420654  2.575331  16.852388  0
-55.745441  -6.995450  15.321630  0
-36.911015  13.492877  22.101488  0
-33.134460  5.417510  20.858301  0
-42.255100  6.118169  18.807240  0
-49.215019  12.249918  21.302610  0
-51.541321  6.672696  13.949360  0
-56.220116  2.313752  9.373300  0
-58.277546  -2.685990  11.329624  0
-30.172720  17.875557  21.339119  0
-31.548517  10.351835  16.385908  0
-43.597404  11.292894  13.413861  0
-52.490364  16.944973  16.113205  0
-54.671745  10.101332  10.618182  0
-57.776199  1.411783  5.246719  0
-26.573286  22.947989  17.505066  0
-33.607510  16.343853  13.950546  0
-42.527981  14.894711  11.366196  0
-51.866306  15.888971  9.429682  0
-49.689423  5.673021  8.282694  0
-33.750050  24.028172  16.432936  0
-38.978683  20.082029  9.145826  0
-46.248535  15.702238  2.906306  0
-51.364571  11.691395  2.954280  0
-45.162533  24.884943  16.501305  0
-45.143749  21.598473  3.552943  0
-48.584877  17.524380  -3.835693  0
-44.907558  26.294739  10.424448  0
-45.138851  24.384714  -3.636235  0
-38.569790  25.628941  3.147246  0
-20.573935  -33.400768  33.013115  0
-19.276527  -39.885254  32.835945  0
-17.640219  -45.547722  37.236115  0
-15.422997  -49.918793  41.586628  0
-12.617957  -56.132923  42.621609  0
-4.020390  -58.188339  32.515652  0
-4.194012  -66.252464  26.819715  0
-4.508189  -73.627762  21.274197  0
-10.224733  -67.234352  19.090714  0
-9.963368  -11.969550  31.839806  0
-10.847905  -16.567373  26.864878  0
-15.017957  -22.853563  25.986828  0
-14.124763  -30.830482  26.248642  0
-4.791128  -35.821323  24.434124  0
-11.067723  -41.019379  23.283146  0
-2.448001  -48.177280  16.985044  0
-1.514496  -61.207294  18.197721  0
-3.033305  -65.969437  15.573080  0
-16.295450  -31.532579  40.789265  0
-13.870571  -32.921959  47.926544  0
-10.121659  -34.464016  50.793507  0
-3.423022  -35.717197  48.706856  0
-1.646799  -30.852936  42.759697  0
-3.804226  -25.809336  38.016518  0
-2.273229  -19.925743  33.167572  0
-4.827682  -15.484808  30.612488  0
-16.109795  -38.668823  37.821526  0
-14.883750  -40.048286  45.961105  0
-11.991552  -39.351543  49.686241  0
-9.149329  -34.799950  44.669098  0
-7.757071  -31.756128  39.206310  0
-7.129838  -26.029245  34.723145  0
-9.551666  -20.552628  31.502993  0
-11.430941  -43.796215  36.773849  0
-9.321613  -43.964737  43.303310  0
-8.847733  -42.250130  43.913876  0
-12.439455  -38.568218  39.461632  0
-13.937471  -33.440525  35.195492  0
-14.979296  -27.820358  31.270721  0
-8.606337  -48.817894  40.227543  0
-3.016280  -47.042580  38.250320  0
-2.599265  -39.801033  37.778259  0
-7.345661  -37.914429  33.428123  0
-11.824945  -34.746098  30.082327  0
-11.400757  -52.524174  38.420708  0
-8.330672  -46.025482  34.895218  0
-6.135322  -42.362499  30.820662  0
-4.536202  -35.101715  29.103874  0
-3.477307  -54.543793  30.835194  0
-2.937086  -50.854099  25.985550  0
-5.387882  -44.961781  24.284388  0
-7.123517  -63.743118  22.537086  0
-7.768011  -55.917068  18.886877  0
-1.191219  -67.991615  19.652622  0
-26.696341  -36.708096  35.939697  0
-31.001984  -35.986519  35.703674  0
-29.174873  -39.332241  30.733995  0
-25.622120  -40.775845  21.770332  0
-22.625624  -43.082989  17.802612  0
-29.933058  -48.201271  21.758495  0
-34.593010  -49.905006  30.979708  0
-34.187824  -53.201851  27.786861  0
-37.674641  -62.238247  18.982794  0
-19.208136  -70.495392  13.539648  0
-16.293463  -76.612114  14.242646  0
-16.506083  -78.646523  12.774135  0
-17.629885  -75.262230  6.595634  0
-17.682293  -70.716751  -0.004089  0
-22.931522  -70.999954  -3.771874  0
-28.906715  -73.870789  2.398731  0
-33.044754  -75.326263  7.180421  0
-32.854607  -69.216141  6.765516  0
-27.198040  -40.089970  33.420368  0
-25.160835  -44.434887  38.896255  0
-22.644110  -51.509075  42.151836  0
-15.341946  -54.788441  39.034626  0
-7.562497  -57.799557  28.154390  0
-7.444164  -67.685371  31.362461  0
-11.680380  -71.229034  22.227638  0
-19.181816  -68.273834  20.447203  0
-33.135067  -42.080601  37.160957  0
-26.479971  -46.632195  38.483112  0
-17.503353  -49.354488  36.126350  0
-13.218799  -59.250793  28.692816  0
-14.410730  -64.777222  28.218662  0
-15.579630  -66.495407  21.121201  0
-25.226789  -69.693077  21.742590  0
-26.701929  -42.346085  31.296741  0
-19.103765  -45.313179  30.707752  0
-15.977633  -56.553173  24.413671  0
-20.650654  -60.664192  24.560055  0
-17.822273  -59.999615  16.854403  0
-22.740679  -68.857094  14.409357  0
-18.692442  -40.685310  24.483290  0
-19.008610  -51.084160  23.233446  0
-23.540991  -56.969204  27.877224  0
-20.535969  -51.657070  14.740447  0
-22.278614  -62.945576  7.246881  0
-23.351707  -46.521324  23.951603  0
-25.177708  -54.396599  32.758907  0
-27.911661  -54.873802  18.616436  0
-27.268478  -60.239086  3.758814  0
-29.759907  -52.047253  30.376831  0
-28.923569  -60.704353  24.374868  0
-29.393753  -67.427795  8.014835  0
-31.733177  -60.177620  28.263506  0
-31.864290  -68.294693  14.805524  0
-38.591301  -64.330345  17.772739  0
-36.183575  -57.638790  13.872409  0
-38.558247  -52.656097  18.129360  0
-43.376019  -57.315762  17.319571  0
-45.008343  -51.562908  16.510998  0
-50.719688  -46.656631  19.756035  0
-50.249924  -41.629013  25.776691  0
-52.864975  -36.991631  21.736898  0
-56.841206  -36.878616  13.543033  0
-59.149086  -24.589161  16.819317  0
-24.836796  -32.059399  38.295055  0
-27.255703  -31.726906  32.634048  0
-24.989376  -35.558426  25.991932  0
-24.660730  -37.776299  16.979872  0
-30.892008  -43.699345  16.472054  0
-36.222313  -46.278603  25.402311  0
-39.217384  -47.922295  30.599884  0
-36.432323  -50.270546  22.355661  0
-30.811981  -27.906286  35.646851  0
-25.213278  -27.837759  28.418238  0
-22.644049  -31.054190  20.220211  0
-30.266027  -35.985718  16.824997  0
-39.126011  -41.701149  19.859732  0
-41.646408  -48.939922  25.441515  0
-42.636871  -54.772964  25.942245  0
-31.910507  -29.593578  29.170660  0
-27.594124  -25.880955  21.357151  0
-29.802166  -31.778151  18.099495  0
-33.816227  -38.047409  24.233795  0
-45.590916  -43.501286  24.542995  0
-46.604042  -52.988510  20.972193  0
-35.641418  -25.407528  24.565960  0
-34.069935  -25.744141  17.550125  0
-37.957600  -35.533710  21.421452  0
-39.605728  -38.851109  31.495708  0
-49.223579  -48.845997  23.900057  0
-36.174538  -19.840643  23.908308  0
-41.013283  -27.752979  21.054087  0
-44.475380  -37.329109  26.439133  0
-48.069740  -39.510231  31.524712  0
-44.242016  -22.669407  20.843176  0
-44.897598  -33.298138  16.071005  0
-52.506035  -34.511318  27.195633  0
-49.297569  -27.519289  24.580778  0
-50.439899  -32.002876  13.327910  0
-55.564240  -28.388744  22.609764  0
-58.189640  -20.588596  9.852505  0
-50.477131  -27.794968  6.634142  0
-40.617096  -31.588669  6.913646  0
-36.628998  -33.615013  1.537936  0
-42.713249  -28.654161  -3.778242  0
-47.919518  -20.390339  -1.843639  0
-55.525337  -13.586967  -0.509120  0
-55.460014  -11.966796  -5.433781  0
-47.332294  -12.347130  -10.372164  0
-34.193802  17.268990  5.911318  0
-37.559856  10.370534  6.601908  0
-40.058216  4.218058  8.137625  0
-40.011761  -2.379697  8.046995  0
-43.025955  -7.484179  10.856746  0
-47.503448  -11.375393  12.783211  0
-48.940536  -13.711448  4.770021  0
-50.844395  -19.341663  8.581278  0
-32.102020  7.408666  8.784121  0
-31.856016  0.929936  8.229675  0
-31.995094  -5.273863  10.562493  0
-34.451698  -13.060009  11.821024  0
-37.342587  -15.790874  8.353103  0
-42.557426  -21.567257  11.067199  0
-47.649384  -25.924973  9.797401  0
-29.389277  -3.573942  2.917466  0
-30.308376  -9.618907  5.842568  0
-26.726336  -15.361539  6.319017  0
-29.242790  -21.997749  9.125984  0
-35.761997  -27.085716  6.187184  0
-38.497845  -25.702515  2.120170  0
-28.351879  -9.677970  -2.395265  0
-26.266325  -16.083647  -1.373087  0
-30.084177  -20.668102  2.800124  0
-31.025234  -22.364218  -1.213261  0
-34.007301  -27.326347  -2.660579  0
-33.879566  -13.201632  -3.952547  0
-38.139561  -15.223766  0.544014  0
-36.977219  -15.760985  -6.054052  0
-38.447849  -21.682983  -6.786909  0
-47.886032  -8.987268  -0.346270  0
-46.637825  -5.106867  -6.148502  0
-46.435413  -13.260696  -6.291770  0
-55.508507  -1.834676  -6.464043  0
-55.782181  -7.707057  -5.879626  0
-53.537914  -5.720377  -9.687662  0
-36.730919  -60.196491  4.751828  0
-36.219997  -57.869881  0.252965  0
-37.998917  -50.788136  -1.594770  0
-45.254353  -47.406067  -4.882949  0
-48.697266  -42.182335  -13.671162  0
-58.215679  -34.154217  -8.375238  0
-52.000969  -30.997047  -12.428900  0
-44.287041  -26.916557  -10.682495  0
-42.744133  -18.384754  -12.470083  0
-33.107681  -53.726875  10.421116  0
-29.195826  -49.277664  5.029459  0
-34.665451  -43.823570  -2.311686  0
-41.543205  -39.684685  -8.272222  0
-50.068050  -34.071777  -8.798244  0
-56.884037  -28.247860  -9.624620  0
-49.236820  -26.362774  -6.129835  0
-47.305870  -19.065250  -7.452331  0
-39.412766  -47.807579  13.769167  0
-35.279449  -48.475334  4.787104  0
-41.657974  -42.566071  1.657147  0
-47.438721  -37.827873  -5.359137  0
-53.359970  -29.364693  -3.524331  0
-56.438972  -24.827621  -3.679260  0
-55.533791  -18.498993  -2.224959  0
-46.964169  -54.734043  11.769382  0
-45.387051  -51.702736  6.290065  0
-51.451855  -45.903275  1.244658  0
-56.048347  -38.988045  -2.773626  0
-60.337624  -29.878819  0.513014  0
-58.168385  -20.482147  4.244593  0
-49.931461  -52.532890  11.991296  0
-48.538803  -51.315636  6.376927  0
-55.360928  -45.265633  3.595546  0
-55.726070  -37.641869  -0.314883  0
-52.912083  -28.504715  0.006623  0
-53.986614  -47.564865  14.308158  0
-49.588001  -47.723389  9.604690  0
-47.936378  -40.041420  6.174566  0
-45.599617  -35.680954  0.141147  0
-46.659462  -42.270988  20.859676  0
-42.368973  -43.416084  15.407343  0
-39.783817  -37.247803  8.611985  0
-48.977695  -38.809788  15.072062  0
-46.625790  -33.587509  12.667883  0
-54.896713  -32.881664  7.482613  0
-13.875689  -58.703178  15.016275  0
-13.435432  -54.687408  11.523849  0
-14.288453  -54.319923  4.710176  0
-8.772232  -51.852402  2.936918  0
-3.492134  -48.308968  -3.603914  0
-4.759074  -40.549049  -4.149981  0
-7.627527  -36.851883  -1.816898  0
-3.391277  -32.392277  -4.673108  0
-3.474802  -27.028080  -6.501317  0
-17.029818  -64.519623  -25.329359  0
-11.728734  -73.422981  -25.080488  0
-6.911817  -81.337341  -28.203913  0
-5.093612  -81.621193  -24.176588  0
-8.817841  -79.305725  -13.596752  0
0.303922  -77.266953  -12.267285  0
-0.752192  -72.537689  1.371704  0
-5.307005  -74.048889  6.601792  0
-12.068541  -68.019402  9.939373  0
-13.306842  -66.964813  -22.381643  0
-7.651942  -70.974945  -28.690363  0
-1.464875  -72.639893  -23.981876  0
-6.966582  -71.872032  -19.966873  0
-3.662754  -75.459244  -9.124132  0
0.102254  -63.705681  -0.271963  0
-8.705495  -64.427773  3.221298  0
-14.741975  -66.859390  4.353767  0
-9.223980  -64.785408  -18.414354  0
-4.000826  -61.906822  -17.268888  0
-0.072068  -68.896591  -12.687759  0
-6.493035  -69.799240  -6.236442  0
-7.662468  -62.496403  -2.166481  0
-10.733456  -55.660297  -4.104056  0
-18.425619  -60.987949  1.318637  0
-9.324697  -56.900352  -19.895864  0
-1.792330  -55.263187  -12.817741  0
-6.196534  -59.863716  -10.188910  0
-17.026644  -66.038620  -9.443435  0
-16.767321  -57.036587  -8.701207  0
-21.040365  -52.053787  1.852415  0
-7.028383  -50.515312  -14.161125  0
-10.947579  -51.942799  -8.353671  0
-21.897663  -57.344841  -12.446550  0
-23.183554  -54.557518  -8.732893  0
-15.535698  -45.432014  -0.562003  0
-12.916711  -45.643890  -15.778561  0
-22.157124  -45.861355  -12.637305  0
-24.596523  -46.064888  -7.052577  0
-11.046359  -47.655743  -3.297332  0
-19.934677  -35.165035  -13.729092  0
-17.921345  -40.302959  -9.708858  0
-11.056669  -43.625229  -8.017361  0
-12.678148  -34.997513  -9.210696  0
-12.158738  -37.474854  -4.694446  0
-9.721267  -32.204674  -6.101502  0
-24.189425  -65.569595  -29.792215  0
-21.112219  -72.327927  -29.367191  0
-29.936920  -73.189735  -32.181080  0
-33.188824  -75.463242  -25.613791  0
-31.785881  -76.598549  -19.469757  0
-33.295494  -75.425415  -15.194448  0
-34.588943  -67.423981  -8.778947  0
-43.830719  -66.256348  -4.890990  0
-45.407936  -63.963978  5.056580  0
-15.418413  -75.093384  -25.582596  0
-20.815659  -76.683899  -24.904629  0
-20.284773  -81.270020  -33.452545  0
-19.931746  -82.573959  -26.943073  0
-27.012825  -79.747925  -19.228016  0
-26.611292  -76.392906  -13.264778  0
-37.564308  -75.644264  -10.407894  0
-36.200302  -64.745766  -2.359045  0
-8.754416  -86.153671  -20.242165  0
-10.891878  -88.682159  -25.939299  0
-16.348635  -88.383736  -25.805122  0
-22.674671  -85.780472  -18.654068  0
-20.079971  -77.478546  -10.429780  0
-29.841105  -85.808487  -8.907747  0
-36.585991  -72.747780  -4.661849  0
-1.766392  -89.962532  -22.320591  0
-12.546280  -93.010315  -18.095394  0
-17.554743  -90.232544  -13.024418  0
-18.841286  -86.274239  -7.500724  0
-25.426582  -82.392014  1.686982  0
-33.467030  -76.091133  -3.018676  0
-12.027508  -87.339462  -14.185249  0
-4.780398  -93.276970  -9.154129  0
-11.864597  -91.535744  -3.099336  0
-14.255982  -83.242393  5.521827  0
-19.192160  -76.130501  -3.856389  0
-2.217101  -88.165428  -17.286928  0
-6.375793  -83.085022  -11.443204  0
-9.764312  -83.959305  -3.545054  0
-7.934944  -79.389099  -0.297498  0
-2.149486  -82.430397  -6.689826  0
-4.124652  -80.383598  1.505668  0
-6.706071  -81.710266  7.459101  0
-0.809734  -76.287537  9.027106  0
-7.282183  -81.884674  13.636049  0
-7.801411  -75.474182  13.379216  0
-32.140133  -65.581131  -30.230917  0
-38.195450  -55.156040  -23.181320  0
-39.250572  -38.318924  -18.075438  0
-46.880047  -35.313824  -29.371637  0
-59.139503  -31.732824  -26.345730  0
-60.043900  -26.459032  -19.509546  0
-58.105125  -23.740345  -12.864538  0
-48.105927  -20.677883  -13.236015  0
-28.700438  -70.077049  -21.832760  0
-33.891747  -55.238808  -17.309151  0
-44.928131  -42.557175  -19.690334  0
-53.275570  -41.153351  -26.346775  0
-52.846901  -33.271332  -20.054342  0
-59.091228  -34.574474  -17.959272  0
-51.678093  -28.984846  -17.183571  0
-39.874573  -65.915741  -23.403149  0
-43.175499  -57.689392  -13.700808  0
-44.497982  -51.780178  -23.895367  0
-50.854343  -48.462173  -22.045269  0
-56.050354  -42.758766  -19.853769  0
-54.943539  -39.544930  -13.806278  0
-39.608345  -66.755516  -17.948471  0
-42.514675  -56.813522  -11.689113  0
-46.907547  -45.397919  -18.842386  0
-53.062111  -51.596706  -15.376007  0
-56.083115  -43.617683  -14.117204  0
-37.528698  -69.836960  -15.852146  0
-33.701904  -57.128395  -11.178919  0
-42.867184  -51.068756  -7.900555  0
-52.738792  -54.160332  -6.270511  0
-35.238831  -65.176895  -12.117546  0
-34.636402  -60.347839  -3.203373  0
-43.153839  -51.214989  -4.995653  0
-42.291119  -63.130352  -4.657648  0
-42.197823  -55.448254  -1.705432  0
-47.570881  -58.750771  -0.840993  0
-7.051787  -24.107590  -0.708061  0
-1.687639  -18.296446  2.735579  0
0.287224  -15.020078  7.421410  0
-2.162956  -11.182607  12.165686  0
-6.000513  -7.564903  15.872589  0
-2.470896  -4.335843  19.500708  0
-3.472478  -5.906194  29.183565  0
-9.460696  -3.182127  26.553726  0
-9.820034  -3.087641  30.897713  0
-7.576252  59.907650  5.450089  0
-5.463451  55.965603  -0.059653  0
-3.958307  46.264740  1.968428  0
0.625289  34.308144  4.257483  0
1.492762  18.229584  4.425191  0
0.204799  4.251945  1.976988  0
0.379511  -5.178889  1.719940  0
-2.774828  -15.107118  0.272049  0
-9.371628  53.578159  7.672706  0
-5.619892  46.614601  7.954648  0
-4.142749  37.759590  8.174150  0
0.244057  24.428852  9.678618  0
0.871179  10.740197  8.632940  0
-0.224657  -1.060201  6.481768  0
-1.533228  -10.452028  4.953048  0
-12.308575  44.746727  15.493169  0
-5.152551  38.435371  12.253329  0
-4.965144  28.248737  13.417597  0
-0.655736  15.697970  14.032804  0
0.672158  4.039747  12.804418  0
-0.030333  -6.471852  9.980654  0
-8.891117  37.724854  19.038296  0
-6.362148  28.242870  17.673798  0
-3.603734  19.329773  16.687351  0
-3.841787  7.745194  16.835449  0
-1.801245  -2.108022  14.966623  0
-9.201698  26.475176  23.216438  0
-6.390012  18.251463  21.304434  0
-1.775628  10.654893  20.556278  0
-4.849355  1.097849  18.906317  0
-9.868236  15.820597  26.697903  0
-2.763355  11.068503  28.813683  0
-3.289257  2.820377  25.175648  0
-7.266452  9.206587  33.697678  0
-6.032219  5.136340  27.531858  0
-8.916490  4.050888  30.958046  0
-6.852089  -64.344742  11.705878  0
-4.573298  -59.837399  14.606196  0
-7.777966  -45.299263  14.693049  0
-10.979300  -35.817566  19.951899  0
-7.779622  -31.909651  20.151615  0
-12.025673  -24.745554  23.026024  0
-13.101180  -16.273109  21.364838  0
-11.883438  -10.426090  27.172344  0
-6.477786  -59.776886  8.796331  0
-8.613281  -54.785030  11.351970  0
-12.634119  -39.171555  12.269891  0
-5.065054  -30.821625  17.894220  0
-6.643275  -25.740215  22.191994  0
-6.780887  -18.294264  22.808712  0
-8.578512  -8.278845  22.909931  0
-2.004829  -54.464783  5.770589  0
-7.069760  -48.006950  9.931334  0
-6.286072  -35.552979  14.511896  0
-3.072258  -24.350916  15.336669  0
-3.468996  -19.265820  23.165207  0
-2.137579  -10.505379  23.970463  0
-4.439711  -47.738537  3.258241  0
-2.625543  -40.153427  11.822874  0
-4.286580  -29.040211  10.317823  0
-5.072453  -20.294340  13.370975  0
-2.919300  -12.217386  15.593566  0
-2.732798  -38.808071  3.854542  0
-7.843562  -33.433090  7.612304  0
-7.328470  -25.235046  9.980913  0
-6.880201  -16.073797  12.948278  0
-6.161821  -36.251663  2.972576  0
-0.799477  -29.691738  6.852238  0
-1.956179  -20.317099  8.940548  0
1.280102  -32.116364  0.330827  0
1.127606  -23.286461  3.485380  0
1.599832  -23.010029  -3.091764  0
30 0 12 0
39 30 12 0
30 39 31 0
40 31 39 0
31 40 32 0
41 32 40 0
32 41 33 0
42 33 41 0
33 42 34 0
43 34 42 0
34 43 35 0
44 35 43 0
35 44 36 0
45 36 44 0
36 45 37 0
46 37 45 0
37 46 38 0
21 38 46 0
21 6 38 0
39 12 13 0
47 39 13 0
39 47 40 0
48 40 47 0
40 48 41 0
49 41 48 0
41 49 42 0
50 42 49 0
42 50 43 0
51 43 50 0
43 51 44 0
52 44 51 0
44 52 45 0
53 45 52 0
45 53 46 0
22 46 53 0
22 21 46 0
47 13 14 0
54 47 14 0
47 54 48 0
55 48 54 0
48 55 49 0
56 49 55 0
49 56 50 0
57 50 56 0
50 57 51 0
58 51 57 0
51 58 52 0
59 52 58 0
52 59 53 0
23 53 59 0
23 22 53 0
54 14 15 0
60 54 15 0
54 60 55 0
61 55 60 0
55 61 56 0
62 56 61 0
56 62 57 0
63 57 62 0
57 63 58 0
64 58 63 0
58 64 59 0
24 59 64 0
24 23 59 0
60 15 16 0
65 60 16 0
60 65 61 0
66 61 65 0
61 66 62 0
67 62 66 0
62 67 63 0
68 63 67 0
63 68 64 0
25 64 68 0
25 24 64 0
65 16 17 0
69 65 17 0
65 69 66 0
70 66 69 0
66 70 67 0
71 67 70 0
67 71 68 0
26 68 71 0
26 25 68 0
69 17 18 0
72 69 18 0
69 72 70 0
73 70 72 0
70 73 71 0
27 71 73 0
27 26 71 0
72 18 19 0
74 72 19 0
72 74 73 0
28 73 74 0
28 27 73 0
74 19 20 0
29 74 20 0
29 28 74 0
20 4 29 0
12 0 75 0
93 12 75 0
12 93 13 0
94 13 93 0
13 94 14 0
95 14 94 0
14 95 15 0
96 15 95 0
15 96 16 0
97 16 96 0
16 97 17 0
98 17 97 0
17 98 18 0
99 18 98 0
18 99 19 0
100 19 99 0
19 100 20 0
84 20 100 0
84 4 20 0
93 75 76 0
101 93 76 0
93 101 94 0
102 94 101 0
94 102 95 0
103 95 102 0
95 103 96 0
104 96 103 0
96 104 97 0
105 97 104 0
97 105 98 0
106 98 105 0
98 106 99 0
107 99 106 0
99 107 100 0
85 100 107 0
85 84 100 0
101 76 77 0
108 101 77 0
101 108 102 0
109 102 108 0
102 109 103 0
110 103 109 0
103 110 104 0
111 104 110 0
104 111 105 0
112 105 111 0
105 112 106 0
113 106 112 0
106 113 107 0
86 107 113 0
86 85 107 0
108 77 78 0
114 108 78 0
108 114 109 0
115 109 114 0
109 115 110 0
116 110 115 0
110 116 111 0
117 111 116 0
111 117 112 0
118 112 117 0
112 118 113 0
87 113 118 0
87 86 113 0
114 78 79 0
119 114 79 0
114 119 115 0
120 115 119 0
115 120 116 0
121 116 120 0
116 121 117 0
122 117 121 0
117 122 118 0
88 118 122 0
88 87 118 0
119 79 80 0
123 119 80 0
119 123 120 0
124 120 123 0
120 124 121 0
125 121 124 0
121 125 122 0
89 122 125 0
89 88 122 0
123 80 81 0
126 123 81 0
123 126 124 0
127 124 126 0
124 127 125 0
90 125 127 0
90 89 125 0
126 81 82 0
128 126 82 0
126 128 127 0
91 127 128 0
91 90 127 0
128 82 83 0
92 128 83 0
92 91 128 0
83 9 92 0
75 0 129 0
147 75 129 0
75 147 76 0
148 76 147 0
76 148 77 0
149 77 148 0
77 149 78 0
150 78 149 0
78 150 79 0
151 79 150 0
79 151 80 0
152 80 151 0
80 152 81 0
153 81 152 0
81 153 82 0
154 82 153 0
82 154 83 0
138 83 154 0
138 9 83 0
147 129 130 0
155 147 130 0
147 155 148 0
156 148 155 0
148 156 149 0
157 149 156 0
149 157 150 0
158 150 157 0
150 158 151 0
159 151 158 0
151 159 152 0
160 152 159 0
152 160 153 0
161 153 160 0
153 161 154 0
139 154 161 0
139 138 154 0
155 130 131 0
162 155 131 0
155 162 156 0
163 156 162 0
156 163 157 0
164 157 163 0
157 164 158 0
165 158 164 0
158 165 159 0
166 159 165 0
159 166 160 0
167 160 166 0
160 167 161 0
140 161 167 0
140 139 161 0
162 131 132 0
168 162 132 0
162 168 163 0
169 163 168 0
163 169 164 0
170 164 169 0
164 170 165 0
171 165 170 0
165 171 166 0
172 166 171 0
166 172 167 0
141 167 172 0
141 140 167 0
168 132 133 0
173 168 133 0
168 173 169 0
174 169 173 0
169 174 170 0
175 170 174 0
170 175 171 0
176 171 175 0
171 176 172 0
142 172 176 0
142 141 172 0
173 133 134 0
177 173 134 0
173 177 174 0
178 174 177 0
174 178 175 0
179 175 178 0
175 179 176 0
143 176 179 0
143 142 176 0
177 134 135 0
180 177 135 0
177 180 178 0
181 178 180 0
178 181 179 0
144 179 181 0
144 143 179 0
180 135 136 0
182 180 136 0
180 182 181 0
145 181 182 0
145 144 181 0
182 136 137 0
146 182 137 0
146 145 182 0
137 3 146 0
129 0 183 0
201 129 183 0
129 201 130 0
202 130 201 0
130 202 131 0
203 131 202 0
131 203 132 0
204 132 203 0
132 204 133 0
205 133 204 0
133 205 134 0
206 134 205 0
134 206 135 0
207 135 206 0
135 207 136 0
208 136 207 0
136 208 137 0
192 137 208 0
192 3 137 0
201 183 184 0
209 201 184 0
201 209 202 0
210 202 209 0
202 210 203 0
211 203 210 0
203 211 204 0
212 204 211 0
204 212 205 0
213 205 212 0
205 213 206 0
214 206 213 0
206 214 207 0
215 207 214 0
207 215 208 0
193 208 215 0
193 192 208 0
209 184 185 0
216 209 185 0
209 216 210 0
217 210 216 0
210 217 211 0
218 211 217 0
211 218 212 0
219 212 218 0
212 219 213 0
220 213 219 0
213 220 214 0
221 214 220 0
214 221 215 0
194 215 221 0
194 193 215 0
216 185 186 0
222 216 186 0
216 222 217 0
223 217 222 0
217 223 218 0
224 218 223 0
218 224 219 0
225 219 224 0
219 225 220 0
226 220 225 0
220 226 221 0
195 221 226 0
195 194 221 0
222 186 187 0
227 222 187 0
222 227 223 0
228 223 227 0
223 228 224 0
229 224 228 0
224 229 225 0
230 225 229 0
225 230 226 0
196 226 230 0
196 195 226 0
227 187 188 0
231 227 188 0
227 231 228 0
232 228 231 0
228 232 229 0
233 229 232 0
229 233 230 0
197 230 233 0
197 196 230 0
231 188 189 0
234 231 189 0
231 234 232 0
235 232 234 0
232 235 233 0
198 233 235 0
198 197 233 0
234 189 190 0
236 234 190 0
234 236 235 0
199 235 236 0
199 198 235 0
236 190 191 0
200 236 191 0
200 199 236 0
191 11 200 0
183 0 30 0
246 183 30 0
183 246 184 0
247 184 246 0
184 247 185 0
248 185 247 0
185 248 186 0
249 186 248 0
186 249 187 0
250 187 249 0
187 250 188 0
251 188 250 0
188 251 189 0
252 189 251 0
189 252 190 0
253 190 252 0
190 253 191 0
237 191 253 0
237 11 191 0
246 30 31 0
254 246 31 0
246 254 247 0
255 247 254 0
247 255 248 0
256 248 255 0
248 256 249 0
257 249 256 0
249 257 250 0
258 250 257 0
250 258 251 0
259 251 258 0
251 259 252 0
260 252 259 0
252 260 253 0
238 253 260 0
238 237 253 0
254 31 32 0
261 254 32 0
254 261 255 0
262 255 261 0
255 262 256 0
263 256 262 0
256 263 257 0
264 257 263 0
257 264 258 0
265 258 264 0
258 265 259 0
266 259 265 0
259 266 260 0
239 260 266 0
239 238 260 0
261 32 33 0
267 261 33 0
261 267 262 0
268 262 267 0
262 268 263 0
269 263 268 0
263 269 264 0
270 264 269 0
264 270 265 0
271 265 270 0
265 271 266 0
240 266 271 0
240 239 266 0
267 33 34 0
272 267 34 0
267 272 268 0
273 268 272 0
268 273 269 0
274 269 273 0
269 274 270 0
275 270 274 0
270 275 271 0
241 271 275 0
241 240 271 0
272 34 35 0
276 272 35 0
272 276 273 0
277 273 276 0
273 277 274 0
278 274 277 0
274 278 275 0
242 275 278 0
242 241 275 0
276 35 36 0
279 276 36 0
276 279 277 0
280 277 279 0
277 280 278 0
243 278 280 0
243 242 278 0
279 36 37 0
281 279 37 0
279 281 280 0
244 280 281 0
244 243 280 0
281 37 38 0
245 281 38 0
245 244 281 0
38 6 245 0
291 1 282 0
300 291 282 0
291 300 292 0
301 292 300 0
292 301 293 0
302 293 301 0
293 302 294 0
303 294 302 0
294 303 295 0
304 295 303 0
295 304 296 0
305 296 304 0
296 305 297 0
306 297 305 0
297 306 298 0
307 298 306 0
298 307 299 0
29 299 307 0
29 4 299 0
300 282 283 0
308 300 283 0
300 308 301 0
309 301 308 0
301 309 302 0
310 302 309 0
302 310 303 0
311 303 310 0
303 311 304 0
312 304 311 0
304 312 305 0
313 305 312 0
305 313 306 0
314 306 313 0
306 314 307 0
28 307 314 0
28 29 307 0
308 283 284 0
315 308 284 0
308 315 309 0
316 309 315 0
309 316 310 0
317 310 316 0
310 317 311 0
318 311 317 0
311 318 312 0
319 312 318 0
312 319 313 0
320 313 319 0
313 320 314 0
27 314 320 0
27 28 314 0
315 284 285 0
321 315 285 0
315 321 316 0
322 316 321 0
316 322 317 0
323 317 322 0
317 323 318 0
324 318 323 0
318 324 319 0
325 319 324 0
319 325 320 0
26 320 325 0
26 27 320 0
321 285 286 0
326 321 286 0
321 326 322 0
327 322 326 0
322 327 323 0
328 323 327 0
323 328 324 0
329 324 328 0
324 329 325 0
25 325 329 0
25 26 325 0
326 286 287 0
330 326 287 0
326 330 327 0
331 327 330 0
327 331 328 0
332 328 331 0
328 332 329 0
24 329 332 0
24 25 329 0
330 287 288 0
333 330 288 0
330 333 331 0
334 331 333 0
331 334 332 0
23 332 334 0
23 24 332 0
333 288 289 0
335 333 289 0
333 335 334 0
22 334 335 0
22 23 334 0
335 289 290 0
21 335 290 0
21 22 335 0
290 6 21 0
282 1 336 0
354 282 336 0
282 354 283 0
355 283 354 0
283 355 284 0
356 284 355 0
284 356 285 0
357 285 356 0
285 357 286 0
358 286 357 0
286 358 287 0
359 287 358 0
287 359 288 0
360 288 359 0
288 360 289 0
361 289 360 0
289 361 290 0
345 290 361 0
345 6 290 0
354 336 337 0
362 354 337 0
354 362 355 0
363 355 362 0
355 363 356 0
364 356 363 0
356 364 357 0
365 357 364 0
357 365 358 0
366 358 365 0
358 366 359 0
367 359 366 0
359 367 360 0
368 360 367 0
360 368 361 0
346 361 368 0
346 345 361 0
362 337 338 0
369 362 338 0
362 369 363 0
370 363 369 0
363 370 364 0
371 364 370 0
364 371 365 0
372 365 371 0
365 372 366 0
373 366 372 0
366 373 367 0
374 367 373 0
367 374 368 0
347 368 374 0
347 346 368 0
369 338 339 0
375 369 339 0
369 375 370 0
376 370 375 0
370 376 371 0
377 371 376 0
371 377 372 0
378 372 377 0
372 378 373 0
379 373 378 0
373 379 374 0
348 374 379 0
348 347 374 0
375 339 340 0
380 375 340 0
375 380 376 0
381 376 380 0
376 381 377 0
382 377 381 0
377 382 378 0
383 378 382 0
378 383 379 0
349 379 383 0
349 348 379 0
380 340 341 0
384 380 341 0
380 384 381 0
385 381 384 0
381 385 382 0
386 382 385 0
382 386 383 0
350 383 386 0
350 349 383 0
384 341 342 0
387 384 342 0
384 387 385 0
388 385 387 0
385 388 386 0
351 386 388 0
351 350 386 0
387 342 343 0
389 387 343 0
387 389 388 0
352 388 389 0
352 351 388 0
389 343 344 0
353 389 344 0
353 352 389 0
344 8 353 0
336 1 390 0
408 336 390 0
336 408 337 0
409 337 408 0
337 409 338 0
410 338 409 0
338 410 339 0
411 339 410 0
339 411 340 0
412 340 411 0
340 412 341 0
413 341 412 0
341 413 342 0
414 342 413 0
342 414 343 0
415 343 414 0
343 415 344 0
399 344 415 0
399 8 344 0
408 390 391 0
416 408 391 0
408 416 409 0
417 409 416 0
409 417 410 0
418 410 417 0
410 418 411 0
419 411 418 0
411 419 412 0
420 412 419 0
412 420 413 0
421 413 420 0
413 421 414 0
422 414 421 0
414 422 415 0
400 415 422 0
400 399 415 0
416 391 392 0
423 416 392 0
416 423 417 0
424 417 423 0
417 424 418 0
425 418 424 0
418 425 419 0
426 419 425 0
419 426 420 0
427 420 426 0
420 427 421 0
428 421 427 0
421 428 422 0
401 422 428 0
401 400 422 0
423 392 393 0
429 423 393 0
423 429 424 0
430 424 429 0
424 430 425 0
431 425 430 0
425 431 426 0
432 426 431 0
426 432 427 0
433 427 432 0
427 433 428 0
402 428 433 0
402 401 428 0
429 393 394 0
434 429 394 0
429 434 430 0
435 430 434 0
430 435 431 0
436 431 435 0
431 436 432 0
437 432 436 0
432 437 433 0
403 433 437 0
403 402 433 0
434 394 395 0
438 434 395 0
434 438 435 0
439 435 438 0
435 439 436 0
440 436 439 0
436 440 437 0
404 437 440 0
404 403 437 0
438 395 396 0
441 438 396 0
438 441 439 0
442 439 441 0
439 442 440 0
405 440 442 0
405 404 440 0
441 396 397 0
443 441 397 0
441 443 442 0
406 442 443 0
406 405 442 0
443 397 398 0
407 443 398 0
407 406 443 0
398 2 407 0
390 1 444 0
462 390 444 0
390 462 391 0
463 391 462 0
391 463 392 0
464 392 463 0
392 464 393 0
465 393 464 0
393 465 394 0
466 394 465 0
394 466 395 0
467 395 466 0
395 467 396 0
468 396 467 0
396 468 397 0
469 397 468 0
397 469 398 0
453 398 469 0
453 2 398 0
462 444 445 0
470 462 445 0
462 470 463 0
471 463 470 0
463 471 464 0
472 464 471 0
464 472 465 0
473 465 472 0
465 473 466 0
474 466 473 0
466 474 467 0
475 467 474 0
467 475 468 0
476 468 475 0
468 476 469 0
454 469 476 0
454 453 469 0
470 445 446 0
477 470 446 0
470 477 471 0
478 471 477 0
471 478 472 0
479 472 478 0
472 479 473 0
480 473 479 0
473 480 474 0
481 474 480 0
474 481 475 0
482 475 481 0
475 482 476 0
455 476 482 0
455 454 476 0
477 446 447 0
483 477 447 0
477 483 478 0
484 478 483 0
478 484 479 0
485 479 484 0
479 485 480 0
486 480 485 0
480 486 481 0
487 481 486 0
481 487 482 0
456 482 487 0
456 455 482 0
483 447 448 0
488 483 448 0
483 488 484 0
489 484 488 0
484 489 485 0
490 485 489 0
485 490 486 0
491 486 490 0
486 491 487 0
457 487 491 0
457 456 487 0
488 448 449 0
492 488 449 0
488 492 489 0
493 489 492 0
489 493 490 0
494 490 493 0
490 494 491 0
458 491 494 0
458 457 491 0
492 449 450 0
495 492 450 0
492 495 493 0
496 493 495 0
493 496 494 0
459 494 496 0
459 458 494 0
495 450 451 0
497 495 451 0
495 497 496 0
460 496 497 0
460 459 496 0
497 451 452 0
461 497 452 0
461 460 497 0
452 10 461 0
444 1 291 0
507 444 291 0
444 507 445 0
508 445 507 0
445 508 446 0
509 446 508 0
446 509 447 0
510 447 509 0
447 510 448 0
511 448 510 0
448 511 449 0
512 449 511 0
449 512 450 0
513 450 512 0
450 513 451 0
514 451 513 0
451 514 452 0
498 452 514 0
498 10 452 0
507 291 292 0
515 507 292 0
507 515 508 0
516 508 515 0
508 516 509 0
517 509 516 0
509 517 510 0
518 510 517 0
510 518 511 0
519 511 518 0
511 519 512 0
520 512 519 0
512 520 513 0
521 513 520 0
513 521 514 0
499 514 521 0
499 498 514 0
515 292 293 0
522 515 293 0
515 522 516 0
523 516 522 0
516 523 517 0
524 517 523 0
517 524 518 0
525 518 524 0
518 525 519 0
526 519 525 0
519 526 520 0
527 520 526 0
520 527 521 0
500 521 527 0
500 499 521 0
522 293 294 0
528 522 294 0
522 528 523 0
529 523 528 0
523 529 524 0
530 524 529 0
524 530 525 0
531 525 530 0
525 531 526 0
532 526 531 0
526 532 527 0
501 527 532 0
501 500 527 0
528 294 295 0
533 528 295 0
528 533 529 0
534 529 533 0
529 534 530 0
535 530 534 0
530 535 531 0
536 531 535 0
531 536 532 0
502 532 536 0
502 501 532 0
533 295 296 0
537 533 296 0
533 537 534 0
538 534 537 0
534 538 535 0
539 535 538 0
535 539 536 0
503 536 539 0
503 502 536 0
537 296 297 0
540 537 297 0
537 540 538 0
541 538 540 0
538 541 539 0
504 539 541 0
504 503 539 0
540 297 298 0
542 540 298 0
540 542 541 0
505 541 542 0
505 504 541 0
542 298 299 0
506 542 299 0
506 505 542 0
299 4 506 0
407 2 543 0
561 407 543 0
407 561 406 0
562 406 561 0
406 562 405 0
563 405 562 0
405 563 404 0
564 404 563 0
404 564 403 0
565 403 564 0
403 565 402 0
566 402 565 0
402 566 401 0
567 401 566 0
401 567 400 0
568 400 567 0
400 568 399 0
552 399 568 0
552 8 399 0
561 543 544 0
569 561 544 0
561 569 562 0
570 562 569 0
562 570 563 0
571 563 570 0
563 571 564 0
572 564 571 0
564 572 565 0
573 565 572 0
565 573 566 0
574 566 573 0
566 574 567 0
575 567 574 0
567 575 568 0
553 568 575 0
553 552 568 0
569 544 545 0
576 569 545 0
569 576 570 0
577 570 576 0
570 577 571 0
578 571 577 0
571 578 572 0
579 572 578 0
572 579 573 0
580 573 579 0
573 580 574 0
581 574 580 0
574 581 575 0
554 575 581 0
554 553 575 0
576 545 546 0
582 576 546 0
576 582 577 0
583 577 582 0
577 583 578 0
584 578 583 0
578 584 579 0
585 579 584 0
579 585 580 0
586 580 585 0
580 586 581 0
555 581 586 0
555 554 581 0
582 546 547 0
587 582 547 0
582 587 583 0
588 583 587 0
583 588 584 0
589 584 588 0
584 589 585 0
590 585 589 0
585 590 586 0
556 586 590 0
556 555 586 0
587 547 548 0
591 587 548 0
587 591 588 0
592 588 591 0
588 592 589 0
593 589 592 0
589 593 590 0
557 590 593 0
557 556 590 0
591 548 549 0
594 591 549 0
591 594 592 0
595 592 594 0
592 595 593 0
558 593 595 0
558 557 593 0
594 549 550 0
596 594 550 0
594 596 595 0
559 595 596 0
559 558 595 0
596 550 551 0
560 596 551 0
560 559 596 0
551 7 560 0
543 2 597 0
615 543 597 0
543 615 544 0
616 544 615 0
544 616 545 0
617 545 616 0
545 617 546 0
618 546 617 0
546 618 547 0
619 547 618 0
547 619 548 0
620 548 619 0
548 620 549 0
621 549 620 0
549 621 550 0
622 550 621 0
550 622 551 0
606 551 622 0
606 7 551 0
615 597 598 0
623 615 598 0
615 623 616 0
624 616 623 0
616 624 617 0
625 617 624 0
617 625 618 0
626 618 625 0
618 626 619 0
627 619 626 0
619 627 620 0
628 620 627 0
620 628 621 0
629 621 628 0
621 629 622 0
607 622 629 0
607 606 622 0
623 598 599 0
630 623 599 0
623 630 624 0
631 624 630 0
624 631 625 0
632 625 631 0
625 632 626 0
633 626 632 0
626 633 627 0
634 627 633 0
627 634 628 0
635 628 634 0
628 635 629 0
608 629 635 0
608 607 629 0
630 599 600 0
636 630 600 0
630 636 631 0
637 631 636 0
631 637 632 0
638 632 637 0
632 638 633 0
639 633 638 0
633 639 634 0
640 634 639 0
634 640 635 0
609 635 640 0
609 608 635 0
636 600 601 0
641 636 601 0
636 641 637 0
642 637 641 0
637 642 638 0
643 638 642 0
638 643 639 0
644 639 643 0
639 644 640 0
610 640 644 0
610 609 640 0
641 601 602 0
645 641 602 0
641 645 642 0
646 642 645 0
642 646 643 0
647 643 646 0
643 647 644 0
611 644 647 0
611 610 644 0
645 602 603 0
648 645 603 0
645 648 646 0
649 646 648 0
646 649 647 0
612 647 649 0
612 611 647 0
648 603 604 0
650 648 604 0
648 650 649 0
613 649 650 0
613 612 649 0
650 604 605 0
614 650 605 0
614 613 650 0
605 5 614 0
597 2 453 0
660 597 453 0
597 660 598 0
661 598 660 0
598 661 599 0
662 599 661 0
599 662 600 0
663 600 662 0
600 663 601 0
664 601 663 0
601 664 602 0
665 602 664 0
602 665 603 0
666 603 665 0
603 666 604 0
667 604 666 0
604 667 605 0
651 605 667 0
651 5 605 0
660 453 454 0
668 660 454 0
660 668 661 0
669 661 668 0
661 669 662 0
670 662 669 0
662 670 663 0
671 663 670 0
663 671 664 0
672 664 671 0
664 672 665 0
673 665 672 0
665 673 666 0
674 666 673 0
666 674 667 0
652 667 674 0
652 651 667 0
668 454 455 0
675 668 455 0
668 675 669 0
676 669 675 0
669 676 670 0
677 670 676 0
670 677 671 0
678 671 677 0
671 678 672 0
679 672 678 0
672 679 673 0
680 673 679 0
673 680 674 0
653 674 680 0
653 652 674 0
675 455 456 0
681 675 456 0
675 681 676 0
682 676 681 0
676 682 677 0
683 677 682 0
677 683 678 0
684 678 683 0
678 684 679 0
685 679 684 0
679 685 680 0
654 680 685 0
654 653 680 0
681 456 457 0
686 681 457 0
681 686 682 0
687 682 686 0
682 687 683 0
688 683 687 0
683 688 684 0
689 684 688 0
684 689 685 0
655 685 689 0
655 654 685 0
686 457 458 0
690 686 458 0
686 690 687 0
691 687 690 0
687 691 688 0
692 688 691 0
688 692 689 0
656 689 692 0
656 655 689 0
690 458 459 0
693 690 459 0
690 693 691 0
694 691 693 0
691 694 692 0
657 692 694 0
657 656 692 0
693 459 460 0
695 693 460 0
693 695 694 0
658 694 695 0
658 657 694 0
695 460 461 0
659 695 461 0
659 658 695 0
461 10 659 0
506 4 84 0
705 506 84 0
506 705 505 0
706 505 705 0
505 706 504 0
707 504 706 0
504 707 503 0
708 503 707 0
503 708 502 0
709 502 708 0
502 709 501 0
710 501 709 0
501 710 500 0
711 500 710 0
500 711 499 0
712 499 711 0
499 712 498 0
696 498 712 0
696 10 498 0
705 84 85 0
713 705 85 0
705 713 706 0
714 706 713 0
706 714 707 0
715 707 714 0
707 715 708 0
716 708 715 0
708 716 709 0
717 709 716 0
709 717 710 0
718 710 717 0
710 718 711 0
719 711 718 0
711 719 712 0
697 712 719 0
697 696 712 0
713 85 86 0
720 713 86 0
713 720 714 0
721 714 720 0
714 721 715 0
722 715 721 0
715 722 716 0
723 716 722 0
716 723 717 0
724 717 723 0
717 724 718 0
725 718 724 0
718 725 719 0
698 719 725 0
698 697 719 0
720 86 87 0
726 720 87 0
720 726 721 0
727 721 726 0
721 727 722 0
728 722 727 0
722 728 723 0
729 723 728 0
723 729 724 0
730 724 729 0
724 730 725 0
699 725 730 0
699 698 725 0
726 87 88 0
731 726 88 0
726 731 727 0
732 727 731 0
727 732 728 0
733 728 732 0
728 733 729 0
734 729 733 0
729 734 730 0
700 730 734 0
700 699 730 0
731 88 89 0
735 731 89 0
731 735 732 0
736 732 735 0
732 736 733 0
737 733 736 0
733 737 734 0
701 734 737 0
701 700 734 0
735 89 90 0
738 735 90 0
735 738 736 0
739 736 738 0
736 739 737 0
702 737 739 0
702 701 737 0
738 90 91 0
740 738 91 0
738 740 739 0
703 739 740 0
703 702 739 0
740 91 92 0
704 740 92 0
704 703 740 0
92 9 704 0
741 5 651 0
750 741 651 0
741 750 742 0
751 742 750 0
742 751 743 0
752 743 751 0
743 752 744 0
753 744 752 0
744 753 745 0
754 745 753 0
745 754 746 0
755 746 754 0
746 755 747 0
756 747 755 0
747 756 748 0
757 748 756 0
748 757 749 0
704 749 757 0
704 9 749 0
750 651 652 0
758 750 652 0
750 758 751 0
759 751 758 0
751 759 752 0
760 752 759 0
752 760 753 0
761 753 760 0
753 761 754 0
762 754 761 0
754 762 755 0
763 755 762 0
755 763 756 0
764 756 763 0
756 764 757 0
703 757 764 0
703 704 757 0
758 652 653 0
765 758 653 0
758 765 759 0
766 759 765 0
759 766 760 0
767 760 766 0
760 767 761 0
768 761 767 0
761 768 762 0
769 762 768 0
762 769 763 0
770 763 769 0
763 770 764 0
702 764 770 0
702 703 764 0
765 653 654 0
771 765 654 0
765 771 766 0
772 766 771 0
766 772 767 0
773 767 772 0
767 773 768 0
774 768 773 0
768 774 769 0
775 769 774 0
769 775 770 0
701 770 775 0
701 702 770 0
771 654 655 0
776 771 655 0
771 776 772 0
777 772 776 0
772 777 773 0
778 773 777 0
773 778 774 0
779 774 778 0
774 779 775 0
700 775 779 0
700 701 775 0
776 655 656 0
780 776 656 0
776 780 777 0
781 777 780 0
777 781 778 0
782 778 781 0
778 782 779 0
699 779 782 0
699 700 779 0
780 656 657 0
783 780 657 0
780 783 781 0
784 781 783 0
781 784 782 0
698 782 784 0
698 699 782 0
783 657 658 0
785 783 658 0
783 785 784 0
697 784 785 0
697 698 784 0
785 658 659 0
696 785 659 0
696 697 785 0
659 10 696 0
795 3 192 0
804 795 192 0
795 804 796 0
805 796 804 0
796 805 797 0
806 797 805 0
797 806 798 0
807 798 806 0
798 807 799 0
808 799 807 0
799 808 800 0
809 800 808 0
800 809 801 0
810 801 809 0
801 810 802 0
811 802 810 0
802 811 803 0
786 803 811 0
786 7 803 0
804 192 193 0
812 804 193 0
804 812 805 0
813 805 812 0
805 813 806 0
814 806 813 0
806 814 807 0
815 807 814 0
807 815 808 0
816 808 815 0
808 816 809 0
817 809 816 0
809 817 810 0
818 810 817 0
810 818 811 0
787 811 818 0
787 786 811 0
812 193 194 0
819 812 194 0
812 819 813 0
820 813 819 0
813 820 814 0
821 814 820 0
814 821 815 0
822 815 821 0
815 822 816 0
823 816 822 0
816 823 817 0
824 817 823 0
817 824 818 0
788 818 824 0
788 787 818 0
819 194 195 0
825 819 195 0
819 825 820 0
826 820 825 0
820 826 821 0
827 821 826 0
821 827 822 0
828 822 827 0
822 828 823 0
829 823 828 0
823 829 824 0
789 824 829 0
789 788 824 0
825 195 196 0
830 825 196 0
825 830 826 0
831 826 830 0
826 831 827 0
832 827 831 0
827 832 828 0
833 828 832 0
828 833 829 0
790 829 833 0
790 789 829 0
830 196 197 0
834 830 197 0
830 834 831 0
835 831 834 0
831 835 832 0
836 832 835 0
832 836 833 0
791 833 836 0
791 790 833 0
834 197 198 0
837 834 198 0
834 837 835 0
838 835 837 0
835 838 836 0
792 836 838 0
792 791 836 0
837 198 199 0
839 837 199 0
837 839 838 0
793 838 839 0
793 792 838 0
839 199 200 0
794 839 200 0
794 793 839 0
200 11 794 0
840 3 795 0
849 840 795 0
840 849 841 0
850 841 849 0
841 850 842 0
851 842 850 0
842 851 843 0
852 843 851 0
843 852 844 0
853 844 852 0
844 853 845 0
854 845 853 0
845 854 846 0
855 846 854 0
846 855 847 0
856 847 855 0
847 856 848 0
614 848 856 0
614 5 848 0
849 795 796 0
857 849 796 0
849 857 850 0
858 850 857 0
850 858 851 0
859 851 858 0
851 859 852 0
860 852 859 0
852 860 853 0
861 853 860 0
853 861 854 0
862 854 861 0
854 862 855 0
863 855 862 0
855 863 856 0
613 856 863 0
613 614 856 0
857 796 797 0
864 857 797 0
857 864 858 0
865 858 864 0
858 865 859 0
866 859 865 0
859 866 860 0
867 860 866 0
860 867 861 0
868 861 867 0
861 868 862 0
869 862 868 0
862 869 863 0
612 863 869 0
612 613 863 0
864 797 798 0
870 864 798 0
864 870 865 0
871 865 870 0
865 871 866 0
872 866 871 0
866 872 867 0
873 867 872 0
867 873 868 0
874 868 873 0
868 874 869 0
611 869 874 0
611 612 869 0
870 798 799 0
875 870 799 0
870 875 871 0
876 871 875 0
871 876 872 0
877 872 876 0
872 877 873 0
878 873 877 0
873 878 874 0
610 874 878 0
610 611 874 0
875 799 800 0
879 875 800 0
875 879 876 0
880 876 879 0
876 880 877 0
